             -1200000             -1110000     65.7468338012695
             -1200000             -1095000     66.0607147216797
             -1200000             -1080000     66.1791915893555
             -1200000             -1065000     66.9693832397461
             -1200000             -1050000     68.2845306396484
             -1200000             -1035000     69.1048583984375
             -1200000             -1020000     69.1095123291016
             -1200000             -1005000     69.0670623779297
             -1200000              -990000     69.4559936523438
             -1200000              -975000     70.2372055053711
             -1200000              -960000     70.8579559326172
             -1200000              -945000     72.6898345947266
             -1200000              -930000     74.8637466430664
             -1200000              -915000     76.3939208984375
             -1200000              -900000     77.2097778320313
             -1200000              -885000     77.5497970581055
             -1200000              -870000     77.6827621459961
             -1200000              -855000     79.4982757568359
             -1200000              -840000     82.7157974243164
             -1200000              -825000      84.965705871582
             -1200000              -810000     87.7478942871094
             -1200000              -795000     90.6239929199219
             -1200000              -780000     91.8158874511719
             -1200000              -765000     93.0105743408203
             -1200000              -750000     94.1883544921875
             -1200000              -735000     95.2173538208008
             -1200000              -720000     95.8546295166016
             -1200000              -705000     96.1229476928711
             -1200000              -690000     96.4798202514648
             -1200000              -675000     96.5770721435547
             -1200000              -660000     98.1973114013672
             -1200000              -645000     100.027297973633
             -1200000              -630000     101.630256652832
             -1200000              -615000     102.250282287598
             -1200000              -600000     103.860397338867
             -1200000              -585000     104.387641906738
             -1200000              -570000      105.44066619873
             -1200000              -555000     107.182762145996
             -1200000              -540000     107.828155517578
             -1200000              -525000     109.084571838379
             -1200000              -510000     110.904891967773
             -1200000              -495000     115.499168395996
             -1200000              -480000     115.613777160645
             -1200000              -465000     116.551620483398
             -1200000              -450000     116.935638427734
             -1200000              -435000      114.97843170166
             -1200000              -420000     110.166213989258
             -1200000              -405000      105.46085357666
             -1200000              -390000     104.276847839355
             -1200000              -375000     102.896659851074
             -1200000              -360000     99.8734359741211
             -1200000              -345000     97.3915100097656
             -1200000              -330000     95.0951919555664
             -1200000              -315000     92.6943130493164
             -1200000              -300000     91.1174697875977
             -1200000              -285000     89.8096466064453
             -1200000              -270000         88.509765625
             -1200000              -255000     87.1363677978516
             -1200000              -240000     86.3172149658203
             -1200000              -225000     85.4578018188477
             -1200000              -210000     84.9887466430664
             -1200000              -195000      84.569709777832
             -1200000              -180000     84.2745590209961
             -1200000              -165000     84.4889450073242
             -1200000              -150000     84.9481353759766
             -1200000              -135000     84.8823165893555
             -1200000              -120000     83.7565460205078
             -1200000              -105000     81.7085342407227
             -1200000               -90000     79.1822052001953
             -1200000               -75000     76.5707015991211
             -1200000               -60000     74.2050094604492
             -1200000               -45000     73.2100219726563
             -1200000               -30000     70.8568725585938
             -1200000               -15000     69.9340896606445
             -1200000                    0     68.3163909912109
             -1200000                15000     67.2782669067383
             -1200000                30000     67.1937561035156
             -1200000                45000     67.1390075683594
             -1200000                60000     67.3698120117188
             -1200000                75000     67.9842987060547
             -1200000                90000     69.1729507446289
             -1200000               105000     70.7748260498047
             -1200000               120000     71.7096786499023
             -1200000               135000     73.6607131958008
             -1200000               150000     75.8900680541992
             -1200000               165000     76.9224319458008
             -1200000               180000     77.5832138061523
             -1200000               195000     77.3315048217773
             -1200000               210000     76.6169662475586
             -1200000               225000     75.7409591674805
             -1200000               240000     75.0017547607422
             -1200000               255000     74.3508682250977
             -1200000               270000     73.6796798706055
             -1200000               285000     73.0042190551758
             -1200000               300000      71.873779296875
             -1200000               315000     70.8045959472656
             -1200000               330000     70.2937622070313
             -1200000               345000     69.9053421020508
             -1200000               360000     69.6201324462891
             -1200000               375000     69.4333343505859
             -1200000               390000     69.2753067016602
             -1200000               405000     69.1668090820313
             -1200000               420000     69.1154251098633
             -1200000               435000     69.1024703979492
             -1200000               450000     69.1081619262695
             -1200000               465000     69.0929107666016
             -1200000               480000     69.1409683227539
             -1200000               495000      69.228157043457
             -1200000               510000     69.4409027099609
             -1200000               525000     69.6919097900391
             -1200000               540000     69.8662033081055
             -1200000               555000     69.9100036621094
             -1200000               570000     69.8995513916016
             -1200000               585000     69.8928833007813
             -1200000               600000     69.7137680053711
             -1200000               615000     69.2705612182617
             -1200000               630000     68.7272338867188
             -1200000               645000     68.1207580566406
             -1200000               660000     67.4858322143555
             -1200000               675000     66.9940567016602
             -1200000               690000     66.7499618530273
             -1200000               705000     66.5957946777344
             -1200000               720000     66.3522796630859
             -1200000               735000     66.1179580688477
             -1200000               750000     65.9101715087891
             -1200000               765000     65.6301956176758
             -1200000               780000     65.3492889404297
             -1200000               795000     65.0131530761719
             -1200000               810000     64.7112045288086
             -1200000               825000     64.4413986206055
             -1200000               840000     64.2272415161133
             -1185000             -1185000     67.1132202148438
             -1185000             -1170000     67.1341018676758
             -1185000             -1155000     66.9493942260742
             -1185000             -1140000       66.55224609375
             -1185000             -1125000     66.4581298828125
             -1185000             -1110000     66.5110473632813
             -1185000             -1095000     67.0270233154297
             -1185000             -1080000      67.298698425293
             -1185000             -1065000     67.6245193481445
             -1185000             -1050000     68.7388381958008
             -1185000             -1035000     69.8568572998047
             -1185000             -1020000     70.2139358520508
             -1185000             -1005000     70.4239959716797
             -1185000              -990000     70.9232559204102
             -1185000              -975000     71.7458801269531
             -1185000              -960000     72.6113204956055
             -1185000              -945000     74.2811965942383
             -1185000              -930000     76.1979141235352
             -1185000              -915000      77.737190246582
             -1185000              -900000     78.7420501708984
             -1185000              -885000     78.9127731323242
             -1185000              -870000     79.4432373046875
             -1185000              -855000     80.4046859741211
             -1185000              -840000     83.1266784667969
             -1185000              -825000     85.9705505371094
             -1185000              -810000     88.6972122192383
             -1185000              -795000     91.1172256469727
             -1185000              -780000     92.8365631103516
             -1185000              -765000     94.3819122314453
             -1185000              -750000     95.6035003662109
             -1185000              -735000     96.8097915649414
             -1185000              -720000     97.9042358398438
             -1185000              -705000     98.0989685058594
             -1185000              -690000     99.3510208129883
             -1185000              -675000     99.7717514038086
             -1185000              -660000     99.9790267944336
             -1185000              -645000     101.834907531738
             -1185000              -630000     104.505722045898
             -1185000              -615000     105.851501464844
             -1185000              -600000      107.94091796875
             -1185000              -585000     108.646377563477
             -1185000              -570000     109.341575622559
             -1185000              -555000     110.960426330566
             -1185000              -540000     110.433349609375
             -1185000              -525000     112.778610229492
             -1185000              -510000     116.786308288574
             -1185000              -495000      119.68187713623
             -1185000              -480000     122.019920349121
             -1185000              -465000     121.991165161133
             -1185000              -450000     121.866119384766
             -1185000              -435000     120.964797973633
             -1185000              -420000      113.73030090332
             -1185000              -405000     107.527153015137
             -1185000              -390000     106.795997619629
             -1185000              -375000     105.936698913574
             -1185000              -360000     103.109848022461
             -1185000              -345000     100.347061157227
             -1185000              -330000     97.8765029907227
             -1185000              -315000     95.2627563476563
             -1185000              -300000     93.4693374633789
             -1185000              -285000     92.0830993652344
             -1185000              -270000     90.0590515136719
             -1185000              -255000     87.4604644775391
             -1185000              -240000     86.7866058349609
             -1185000              -225000     86.1413650512695
             -1185000              -210000     85.8893890380859
             -1185000              -195000     85.5275039672852
             -1185000              -180000      85.468505859375
             -1185000              -165000     85.9318466186523
             -1185000              -150000     86.7308197021484
             -1185000              -135000     86.4018249511719
             -1185000              -120000     85.3162307739258
             -1185000              -105000     82.8406295776367
             -1185000               -90000     80.3520126342773
             -1185000               -75000     77.0505065917969
             -1185000               -60000     74.2782745361328
             -1185000               -45000     72.8727798461914
             -1185000               -30000     71.3366851806641
             -1185000               -15000     69.8991470336914
             -1185000                    0     68.9445877075195
             -1185000                15000     68.2175903320313
             -1185000                30000     67.6535873413086
             -1185000                45000      67.448860168457
             -1185000                60000     67.3845748901367
             -1185000                75000     67.7705993652344
             -1185000                90000     69.3738250732422
             -1185000               105000     70.7311630249023
             -1185000               120000      72.327522277832
             -1185000               135000     73.9494552612305
             -1185000               150000     75.1049728393555
             -1185000               165000     76.1907119750977
             -1185000               180000     77.3684844970703
             -1185000               195000     78.3423385620117
             -1185000               210000     77.7218704223633
             -1185000               225000     76.8630599975586
             -1185000               240000     75.7954864501953
             -1185000               255000     74.8728256225586
             -1185000               270000     74.1640396118164
             -1185000               285000     72.9887161254883
             -1185000               300000     71.6285629272461
             -1185000               315000     70.7842788696289
             -1185000               330000     70.4007415771484
             -1185000               345000     69.9920883178711
             -1185000               360000     69.5855560302734
             -1185000               375000     69.2992172241211
             -1185000               390000     69.0664825439453
             -1185000               405000     68.9162368774414
             -1185000               420000     68.7970504760742
             -1185000               435000     68.6940231323242
             -1185000               450000     68.6346893310547
             -1185000               465000     68.5718841552734
             -1185000               480000     68.5686111450195
             -1185000               495000     68.6114273071289
             -1185000               510000     68.8544464111328
             -1185000               525000     69.1659851074219
             -1185000               540000      69.305046081543
             -1185000               555000     69.2569885253906
             -1185000               570000     69.1984481811523
             -1185000               585000     69.0934066772461
             -1185000               600000     68.8339385986328
             -1185000               615000     68.3969116210938
             -1185000               630000     67.8573455810547
             -1185000               645000     67.2788619995117
             -1185000               660000     66.6880645751953
             -1185000               675000     66.2329635620117
             -1185000               690000     65.8602828979492
             -1185000               705000     65.6608505249023
             -1185000               720000     65.4054412841797
             -1185000               735000     65.1940994262695
             -1185000               750000     65.0360946655273
             -1185000               765000     64.8413162231445
             -1185000               780000     64.6604385375977
             -1185000               795000      64.454963684082
             -1185000               810000     64.2534942626953
             -1185000               825000     64.0882720947266
             -1185000               840000     63.9733543395996
             -1170000             -1185000     68.0444793701172
             -1170000             -1170000     68.0262756347656
             -1170000             -1155000     67.6894836425781
             -1170000             -1140000     67.4722137451172
             -1170000             -1125000     67.8429870605469
             -1170000             -1110000       66.85205078125
             -1170000             -1095000     67.8478317260742
             -1170000             -1080000     68.0231552124023
             -1170000             -1065000     68.0563278198242
             -1170000             -1050000     68.6034927368164
             -1170000             -1035000     70.0282440185547
             -1170000             -1020000     71.1805267333984
             -1170000             -1005000     71.6023101806641
             -1170000              -990000     71.9612808227539
             -1170000              -975000     72.8705520629883
             -1170000              -960000     73.9424591064453
             -1170000              -945000     75.6253662109375
             -1170000              -930000     77.2934951782227
             -1170000              -915000     78.7043533325195
             -1170000              -900000     79.7577133178711
             -1170000              -885000     80.4427795410156
             -1170000              -870000     81.1053009033203
             -1170000              -855000      81.609489440918
             -1170000              -840000      83.096061706543
             -1170000              -825000     86.8993911743164
             -1170000              -810000     89.5531921386719
             -1170000              -795000     91.8696441650391
             -1170000              -780000     94.0225830078125
             -1170000              -765000     96.0947723388672
             -1170000              -750000     97.1547546386719
             -1170000              -735000     98.6075439453125
             -1170000              -720000     99.8816909790039
             -1170000              -705000     100.494918823242
             -1170000              -690000     101.295852661133
             -1170000              -675000     103.148231506348
             -1170000              -660000     104.268623352051
             -1170000              -645000      105.86498260498
             -1170000              -630000     108.264175415039
             -1170000              -615000     109.444946289063
             -1170000              -600000     111.114356994629
             -1170000              -585000     110.823623657227
             -1170000              -570000     112.131950378418
             -1170000              -555000     113.425956726074
             -1170000              -540000     113.682754516602
             -1170000              -525000     116.458717346191
             -1170000              -510000     116.691909790039
             -1170000              -495000     120.797859191895
             -1170000              -480000     122.898529052734
             -1170000              -465000     123.578826904297
             -1170000              -450000     124.977355957031
             -1170000              -435000     123.640037536621
             -1170000              -420000     117.072463989258
             -1170000              -405000     111.053245544434
             -1170000              -390000     109.664970397949
             -1170000              -375000     108.655563354492
             -1170000              -360000      104.90860748291
             -1170000              -345000     102.181632995605
             -1170000              -330000     99.4001922607422
             -1170000              -315000     96.7333145141602
             -1170000              -300000     94.9123153686523
             -1170000              -285000     93.5749740600586
             -1170000              -270000     91.6801452636719
             -1170000              -255000     89.6559524536133
             -1170000              -240000     88.1170272827148
             -1170000              -225000     87.0721969604492
             -1170000              -210000     86.7924499511719
             -1170000              -195000     86.7745513916016
             -1170000              -180000     86.7341690063477
             -1170000              -165000     87.2684020996094
             -1170000              -150000     88.8985214233398
             -1170000              -135000      87.600341796875
             -1170000              -120000     85.7759094238281
             -1170000              -105000     83.1720199584961
             -1170000               -90000     80.7151260375977
             -1170000               -75000     77.7427368164063
             -1170000               -60000     74.8606872558594
             -1170000               -45000     73.2094879150391
             -1170000               -30000      72.084342956543
             -1170000               -15000     71.6882019042969
             -1170000                    0      70.002815246582
             -1170000                15000     69.7068252563477
             -1170000                30000     68.7172698974609
             -1170000                45000     68.1616439819336
             -1170000                60000     67.8579483032227
             -1170000                75000     67.8623657226563
             -1170000                90000      68.500358581543
             -1170000               105000     69.6964263916016
             -1170000               120000      70.902229309082
             -1170000               135000     72.7257461547852
             -1170000               150000      74.129508972168
             -1170000               165000     74.7713623046875
             -1170000               180000      76.658561706543
             -1170000               195000     78.0984878540039
             -1170000               210000     77.8867721557617
             -1170000               225000     76.9695510864258
             -1170000               240000      76.007682800293
             -1170000               255000     74.8052825927734
             -1170000               270000     73.9376678466797
             -1170000               285000     72.9098129272461
             -1170000               300000     71.7046966552734
             -1170000               315000     70.9352035522461
             -1170000               330000     70.4622039794922
             -1170000               345000     69.9743499755859
             -1170000               360000     69.5165176391602
             -1170000               375000     69.1642379760742
             -1170000               390000     68.8628158569336
             -1170000               405000     68.6254272460938
             -1170000               420000     68.4053649902344
             -1170000               435000     68.1077194213867
             -1170000               450000     67.9837112426758
             -1170000               465000     67.9235076904297
             -1170000               480000     67.9211273193359
             -1170000               495000     67.9453887939453
             -1170000               510000     68.2626495361328
             -1170000               525000     68.6485061645508
             -1170000               540000     68.8499221801758
             -1170000               555000      68.795051574707
             -1170000               570000     68.6287002563477
             -1170000               585000     68.4207458496094
             -1170000               600000     68.1060943603516
             -1170000               615000     67.6895980834961
             -1170000               630000     67.1767196655273
             -1170000               645000     66.6236572265625
             -1170000               660000     66.0892562866211
             -1170000               675000     65.5705642700195
             -1170000               690000     65.1591720581055
             -1170000               705000     64.8715362548828
             -1170000               720000     64.6420211791992
             -1170000               735000     64.4388427734375
             -1170000               750000     64.3083343505859
             -1170000               765000     64.2020874023438
             -1170000               780000     64.0845031738281
             -1170000               795000     63.9799575805664
             -1170000               810000     63.8548812866211
             -1170000               825000     63.7950592041016
             -1170000               840000     63.7730674743652
             -1170000               855000     63.8624382019043
             -1155000             -1170000     68.8574447631836
             -1155000             -1155000     69.1238403320313
             -1155000             -1140000     69.2544021606445
             -1155000             -1125000     69.0648727416992
             -1155000             -1110000     68.6829833984375
             -1155000             -1095000     68.7962799072266
             -1155000             -1080000      68.964973449707
             -1155000             -1065000     68.7088623046875
             -1155000             -1050000     67.9149780273438
             -1155000             -1035000     70.0925445556641
             -1155000             -1020000     72.0017700195313
             -1155000             -1005000     72.5251541137695
             -1155000              -990000     72.9666061401367
             -1155000              -975000     73.8594131469727
             -1155000              -960000     75.1264419555664
             -1155000              -945000     76.6571884155273
             -1155000              -930000      78.176383972168
             -1155000              -915000     79.4932708740234
             -1155000              -900000     80.5937271118164
             -1155000              -885000     81.3260726928711
             -1155000              -870000     82.0019683837891
             -1155000              -855000     82.1077423095703
             -1155000              -840000     82.4471664428711
             -1155000              -825000     85.4576263427734
             -1155000              -810000     89.1884002685547
             -1155000              -795000      92.434326171875
             -1155000              -780000     95.2747650146484
             -1155000              -765000     97.4085006713867
             -1155000              -750000     99.4051208496094
             -1155000              -735000     101.507781982422
             -1155000              -720000     102.270042419434
             -1155000              -705000       103.3798828125
             -1155000              -690000     104.865158081055
             -1155000              -675000     107.326438903809
             -1155000              -660000     108.774658203125
             -1155000              -645000     110.871620178223
             -1155000              -630000     112.371406555176
             -1155000              -615000     113.595184326172
             -1155000              -600000     114.428367614746
             -1155000              -585000     113.972793579102
             -1155000              -570000     116.344764709473
             -1155000              -555000     115.863555908203
             -1155000              -540000     114.275527954102
             -1155000              -525000      119.05525970459
             -1155000              -510000     118.501930236816
             -1155000              -495000     120.260704040527
             -1155000              -480000     122.402862548828
             -1155000              -465000     125.180160522461
             -1155000              -450000     127.947486877441
             -1155000              -435000     126.334457397461
             -1155000              -420000      120.22721862793
             -1155000              -405000     113.022773742676
             -1155000              -390000     113.365371704102
             -1155000              -375000     110.323570251465
             -1155000              -360000     105.775566101074
             -1155000              -345000     103.792930603027
             -1155000              -330000     100.951705932617
             -1155000              -315000     97.5313339233398
             -1155000              -300000     95.3682327270508
             -1155000              -285000     93.7472610473633
             -1155000              -270000     91.7604904174805
             -1155000              -255000     89.6597442626953
             -1155000              -240000     90.0442962646484
             -1155000              -225000     88.7670974731445
             -1155000              -210000     88.2127075195313
             -1155000              -195000     88.3043441772461
             -1155000              -180000     88.2158737182617
             -1155000              -165000     88.3633804321289
             -1155000              -150000     88.4748229980469
             -1155000              -135000      87.649040222168
             -1155000              -120000     85.6378402709961
             -1155000              -105000     82.7356109619141
             -1155000               -90000     80.7553024291992
             -1155000               -75000     78.5058670043945
             -1155000               -60000     75.3911437988281
             -1155000               -45000     73.6810989379883
             -1155000               -30000     72.6086273193359
             -1155000               -15000     72.0050048828125
             -1155000                    0      70.847541809082
             -1155000                15000     70.1057434082031
             -1155000                30000     69.5762557983398
             -1155000                45000     69.2734756469727
             -1155000                60000     68.8264236450195
             -1155000                75000     68.4705657958984
             -1155000                90000     68.5601196289063
             -1155000               105000     69.5737533569336
             -1155000               120000     69.8296813964844
             -1155000               135000     71.0418090820313
             -1155000               150000     72.8831481933594
             -1155000               165000     73.9759216308594
             -1155000               180000     75.7251586914063
             -1155000               195000     76.8055648803711
             -1155000               210000     76.2834320068359
             -1155000               225000     75.3809585571289
             -1155000               240000     74.7909774780273
             -1155000               255000     73.7658462524414
             -1155000               270000     73.1817932128906
             -1155000               285000     72.5621719360352
             -1155000               300000     71.7505340576172
             -1155000               315000     71.0519485473633
             -1155000               330000     70.4065170288086
             -1155000               345000     69.8722610473633
             -1155000               360000     69.3870544433594
             -1155000               375000     68.9555587768555
             -1155000               390000     68.5676193237305
             -1155000               405000     68.2039184570313
             -1155000               420000     67.8549499511719
             -1155000               435000     67.4888229370117
             -1155000               450000     67.2243804931641
             -1155000               465000     67.2974700927734
             -1155000               480000     67.3968505859375
             -1155000               495000     67.5457153320313
             -1155000               510000     67.9060516357422
             -1155000               525000     68.2860946655273
             -1155000               540000     68.4997482299805
             -1155000               555000      68.347770690918
             -1155000               570000     68.0965270996094
             -1155000               585000      67.838264465332
             -1155000               600000     67.5024642944336
             -1155000               615000     67.0998458862305
             -1155000               630000     66.6026763916016
             -1155000               645000     66.0776748657227
             -1155000               660000     65.5336685180664
             -1155000               675000      65.013801574707
             -1155000               690000     64.5634918212891
             -1155000               705000     64.2155914306641
             -1155000               720000     63.9746551513672
             -1155000               735000      63.782470703125
             -1155000               750000     63.6787376403809
             -1155000               765000     63.6241302490234
             -1155000               780000     63.5751457214355
             -1155000               795000     63.5564651489258
             -1155000               810000     63.5329170227051
             -1155000               825000     63.5918464660645
             -1155000               840000     63.6833457946777
             -1140000             -1185000     70.0813903808594
             -1140000             -1170000      70.124137878418
             -1140000             -1155000      70.276496887207
             -1140000             -1140000       70.36181640625
             -1140000             -1125000     70.3451461791992
             -1140000             -1110000     70.1507339477539
             -1140000             -1095000     70.1721343994141
             -1140000             -1080000     70.2933349609375
             -1140000             -1065000     70.0530624389648
             -1140000             -1050000      69.362907409668
             -1140000             -1035000     70.9044036865234
             -1140000             -1020000     72.3967819213867
             -1140000             -1005000     73.5629577636719
             -1140000              -990000     74.3840637207031
             -1140000              -975000     74.9872360229492
             -1140000              -960000     76.0843124389648
             -1140000              -945000     77.5309600830078
             -1140000              -930000     78.9568862915039
             -1140000              -915000     80.1541519165039
             -1140000              -900000     81.1524429321289
             -1140000              -885000     81.8136978149414
             -1140000              -870000     82.1851043701172
             -1140000              -855000      82.054328918457
             -1140000              -840000     82.0265274047852
             -1140000              -825000     84.2039566040039
             -1140000              -810000     89.0045166015625
             -1140000              -795000      92.893180847168
             -1140000              -780000     96.0103759765625
             -1140000              -765000     98.4107208251953
             -1140000              -750000     101.641448974609
             -1140000              -735000     104.042510986328
             -1140000              -720000     106.330871582031
             -1140000              -705000     107.864837646484
             -1140000              -690000     108.636413574219
             -1140000              -675000     109.887817382813
             -1140000              -660000     111.683486938477
             -1140000              -645000     112.529319763184
             -1140000              -630000     116.239517211914
             -1140000              -615000     116.714500427246
             -1140000              -600000     118.276908874512
             -1140000              -585000     118.216407775879
             -1140000              -570000      119.53685760498
             -1140000              -555000     118.900604248047
             -1140000              -540000     119.106742858887
             -1140000              -525000      121.22583770752
             -1140000              -510000     121.183036804199
             -1140000              -495000     121.623184204102
             -1140000              -480000     124.257141113281
             -1140000              -465000     124.910339355469
             -1140000              -450000     130.175033569336
             -1140000              -435000     128.482894897461
             -1140000              -420000      123.28369140625
             -1140000              -405000     117.827377319336
             -1140000              -390000      115.54508972168
             -1140000              -375000      112.38452911377
             -1140000              -360000     108.361618041992
             -1140000              -345000     106.117027282715
             -1140000              -330000     102.093864440918
             -1140000              -315000     98.4814834594727
             -1140000              -300000     96.5763473510742
             -1140000              -285000     93.9406814575195
             -1140000              -270000     92.5760269165039
             -1140000              -255000      91.865348815918
             -1140000              -240000     91.0860214233398
             -1140000              -225000      90.263069152832
             -1140000              -210000     89.8597564697266
             -1140000              -195000     89.5648956298828
             -1140000              -180000     89.4063873291016
             -1140000              -165000     89.4286422729492
             -1140000              -150000     89.0507583618164
             -1140000              -135000     87.4686279296875
             -1140000              -120000     85.2265853881836
             -1140000              -105000     82.3969345092773
             -1140000               -90000       80.46142578125
             -1140000               -75000      78.690559387207
             -1140000               -60000     76.3192977905273
             -1140000               -45000     74.0226287841797
             -1140000               -30000     72.9759826660156
             -1140000               -15000     72.8552856445313
             -1140000                    0     71.4685974121094
             -1140000                15000     70.4986343383789
             -1140000                30000     70.2484283447266
             -1140000                45000      70.344841003418
             -1140000                60000     70.0507736206055
             -1140000                75000     69.7157363891602
             -1140000                90000     69.2378845214844
             -1140000               105000      69.172248840332
             -1140000               120000     69.8058242797852
             -1140000               135000     70.7263412475586
             -1140000               150000     72.5142135620117
             -1140000               165000     73.4779968261719
             -1140000               180000     75.3194046020508
             -1140000               195000     75.2288970947266
             -1140000               210000     73.7876358032227
             -1140000               225000     73.1552047729492
             -1140000               240000     72.4382171630859
             -1140000               255000     72.1397552490234
             -1140000               270000     71.9794769287109
             -1140000               285000     71.8253784179688
             -1140000               300000      71.446533203125
             -1140000               315000     70.8122787475586
             -1140000               330000     70.2213134765625
             -1140000               345000     69.6937713623047
             -1140000               360000     69.1670989990234
             -1140000               375000     68.6152801513672
             -1140000               390000     68.1400756835938
             -1140000               405000     67.7574996948242
             -1140000               420000     67.3679046630859
             -1140000               435000     67.1221008300781
             -1140000               450000     67.0202026367188
             -1140000               465000     67.0712585449219
             -1140000               480000     67.3003540039063
             -1140000               495000     67.5505676269531
             -1140000               510000      67.760139465332
             -1140000               525000      68.106071472168
             -1140000               540000     68.1100845336914
             -1140000               555000     67.8834533691406
             -1140000               570000     67.6085205078125
             -1140000               585000     67.3312606811523
             -1140000               600000     66.9983978271484
             -1140000               615000     66.6171798706055
             -1140000               630000     66.1452102661133
             -1140000               645000     65.6235504150391
             -1140000               660000      65.094970703125
             -1140000               675000     64.5685729980469
             -1140000               690000     64.0726165771484
             -1140000               705000     63.6831932067871
             -1140000               720000     63.4044647216797
             -1140000               735000      63.225658416748
             -1140000               750000     63.1480102539063
             -1140000               765000     63.1362228393555
             -1140000               780000     63.1593589782715
             -1140000               795000     63.2578430175781
             -1140000               810000     63.3419914245605
             -1140000               825000     63.4925346374512
             -1140000               840000     63.6822357177734
             -1140000               855000     63.9270858764648
             -1125000             -1185000     71.7121047973633
             -1125000             -1170000     72.2997283935547
             -1125000             -1155000     71.8912353515625
             -1125000             -1140000     71.5398101806641
             -1125000             -1125000     71.8231964111328
             -1125000             -1110000     71.9560699462891
             -1125000             -1095000     71.8995590209961
             -1125000             -1080000     71.7167816162109
             -1125000             -1065000      71.487922668457
             -1125000             -1050000      71.048713684082
             -1125000             -1035000     70.5310516357422
             -1125000             -1020000     72.5000381469727
             -1125000             -1005000      74.377311706543
             -1125000              -990000     75.6575088500977
             -1125000              -975000     76.0392303466797
             -1125000              -960000     76.9371948242188
             -1125000              -945000       78.20166015625
             -1125000              -930000         79.494140625
             -1125000              -915000     80.5575637817383
             -1125000              -900000     81.5188903808594
             -1125000              -885000     82.2830505371094
             -1125000              -870000     82.3770904541016
             -1125000              -855000     82.2535400390625
             -1125000              -840000     82.3128356933594
             -1125000              -825000     86.2061309814453
             -1125000              -810000     90.2647323608398
             -1125000              -795000     93.5550842285156
             -1125000              -780000     96.7114562988281
             -1125000              -765000     99.9653091430664
             -1125000              -750000     102.395545959473
             -1125000              -735000     105.531845092773
             -1125000              -720000     108.258033752441
             -1125000              -705000     111.224266052246
             -1125000              -690000     112.729202270508
             -1125000              -675000     113.579193115234
             -1125000              -660000     116.185958862305
             -1125000              -645000     118.445014953613
             -1125000              -630000     119.950126647949
             -1125000              -615000     120.448783874512
             -1125000              -600000     121.126518249512
             -1125000              -585000     122.261138916016
             -1125000              -570000     123.925346374512
             -1125000              -555000     123.226303100586
             -1125000              -540000     121.644912719727
             -1125000              -525000     124.430702209473
             -1125000              -510000     125.918418884277
             -1125000              -495000     128.483657836914
             -1125000              -480000     129.940704345703
             -1125000              -465000     132.911849975586
             -1125000              -450000     132.182983398438
             -1125000              -435000     127.867576599121
             -1125000              -420000      124.60489654541
             -1125000              -405000     122.479835510254
             -1125000              -390000     119.007438659668
             -1125000              -375000     116.115814208984
             -1125000              -360000     111.614776611328
             -1125000              -345000     109.039222717285
             -1125000              -330000     105.169937133789
             -1125000              -315000     102.120376586914
             -1125000              -300000     98.9246063232422
             -1125000              -285000     95.5533676147461
             -1125000              -270000     93.8295745849609
