               210000              -675000      11.277626991272
               210000              -660000     11.1724252700806
               210000              -645000     11.1231555938721
               210000              -630000     11.0250110626221
               210000              -615000     11.1522779464722
               210000              -600000     11.0035705566406
               210000              -585000     10.9428977966309
               210000              -570000     10.9724559783936
               210000              -555000     10.9676380157471
               210000              -540000     10.9525880813599
               210000              -525000     10.9404783248901
               210000              -510000     10.9310350418091
               210000              -495000     10.9265937805176
               210000              -480000      10.924596786499
               210000              -465000     10.9710512161255
               210000              -450000      11.038290977478
               210000              -435000     11.0867729187012
               210000              -420000     11.1123113632202
               210000              -405000     11.1529340744019
               210000              -390000     11.2009811401367
               210000              -375000     11.2316246032715
               210000              -360000     11.2245264053345
               210000              -345000     11.2171363830566
               210000              -330000     11.2322683334351
               210000              -315000      11.239070892334
               210000              -300000     11.2418880462646
               210000              -285000     11.2476434707642
               210000              -270000     11.2484512329102
               210000              -255000      11.240779876709
               210000              -240000     11.2268581390381
               210000              -225000     11.2347278594971
               210000              -210000      11.272762298584
               210000              -195000     11.3388452529907
               210000              -180000     11.4220628738403
               210000              -165000      11.509147644043
               210000              -150000     11.5978183746338
               210000              -135000     11.6813564300537
               210000              -120000        11.7607421875
               210000              -105000     11.8240451812744
               210000               -90000     11.8654251098633
               210000               -75000     11.8799304962158
               210000               -60000     11.8610324859619
               210000               -45000     11.8302040100098
               210000               -30000     11.8067445755005
               210000               -15000      11.792555809021
               210000                    0     11.8103876113892
               210000                15000     11.8628215789795
               210000                30000     11.9605340957642
               210000                45000     11.9868326187134
               210000                60000     11.9831409454346
               210000                75000     11.9689388275146
               210000                90000     11.9504308700562
               210000               105000     11.9532346725464
               210000               120000      12.051474571228
               210000               135000      12.309886932373
               210000               150000     12.6634654998779
               210000               165000     12.8680810928345
               210000               180000     13.0107288360596
               210000               195000     13.2071504592896
               210000               210000     13.6335906982422
               210000               225000     13.9383115768433
               210000               240000     14.0647964477539
               210000               255000     14.0281410217285
               210000               270000     13.9155654907227
               210000               285000     13.7894477844238
               210000               300000     13.6366319656372
               210000               315000     13.4297113418579
               210000               330000     13.1827030181885
               210000               345000     12.9472332000732
               210000               360000     12.7348403930664
               210000               375000     12.5379915237427
               210000               390000     12.3737125396729
               210000               405000     12.2314424514771
               210000               420000     12.1237955093384
               210000               435000     12.0530872344971
               210000               450000     12.0300207138062
               210000               465000     12.0358076095581
               210000               480000      12.080620765686
               210000               495000     12.1360712051392
               210000               510000     12.2059049606323
               210000               525000     12.2574462890625
               210000               540000     12.3118524551392
               210000               555000     12.3618497848511
               210000               570000     12.3955631256104
               210000               585000     12.4086542129517
               210000               600000     12.3815975189209
               210000               615000     12.3453149795532
               210000               630000     12.2806301116943
               210000               645000     12.2163858413696
               210000               660000     12.1616449356079
               210000               675000     12.1279916763306
               210000               690000     12.1112670898438
               210000               705000     12.1133327484131
               210000               720000     12.1500539779663
               210000               735000     12.2220363616943
               210000               750000     12.3260936737061
               210000               765000     12.4520978927612
               210000               780000     12.6028270721436
               210000               795000     12.6035251617432
               210000               810000     12.3985481262207
               210000               825000     12.1787576675415
               210000               840000     11.9774188995361
               210000               855000     11.8291425704956
               210000               870000     11.7037477493286
               210000               885000     11.6072816848755
               210000               900000     11.5266876220703
               210000               915000     11.4522943496704
               210000               930000     11.3846797943115
               210000               945000     11.3419122695923
               210000               960000     11.3218145370483
               210000               975000     11.2974462509155
               210000               990000     11.2690753936768
               210000              1005000     11.2540130615234
               210000              1020000     11.2360210418701
               210000              1035000     11.2192506790161
               210000              1050000     11.2013454437256
               210000              1065000     11.1827163696289
               210000              1080000     11.1664752960205
               210000              1095000      11.150297164917
               210000              1110000      11.128586769104
               210000              1125000     11.1146612167358
               210000              1140000     11.1077861785889
               210000              1155000     11.1361179351807
               210000              1170000     11.1643266677856
               210000              1185000     11.2011785507202
               210000              1200000     11.2457160949707
               210000              1215000     11.2672233581543
               210000              1230000      11.266942024231
               210000              1245000     11.2799110412598
               210000              1260000     11.2989320755005
               210000              1275000     11.3157949447632
               210000              1290000     11.3027324676514
               210000              1305000     11.2986717224121
               210000              1320000     11.2807941436768
               210000              1335000     11.2734346389771
               210000              1350000     11.2714805603027
               210000              1365000     11.2657079696655
               210000              1380000     11.2510175704956
               210000              1395000     11.2469425201416
               210000              1410000     11.2433519363403
               210000              1425000     11.2535552978516
               210000              1440000     11.2784004211426
               210000              1455000     11.3167533874512
               210000              1470000     11.4377040863037
               210000              1485000     11.5043258666992
               210000              1500000      11.576229095459
               210000              1515000     11.6793231964111
               210000              1530000      11.824104309082
               210000              1545000     11.9536914825439
               210000              1560000     12.0704736709595
               210000              1575000     12.2025270462036
               210000              1590000     12.3052492141724
               210000              1605000     12.3762102127075
               210000              1620000     12.3052749633789
               210000              1635000     12.3823566436768
               210000              1650000     12.3881101608276
               210000              1665000     12.3476047515869
               210000              1680000     12.2960166931152
               210000              1695000     12.2355918884277
               210000              1710000     12.2002687454224
               210000              1725000     12.1754579544067
               210000              1740000      12.105785369873
               210000              1755000     12.0502729415894
               210000              1770000     11.9626235961914
               210000              1785000     11.7799291610718
               210000              1800000      11.720287322998
               210000              1815000     11.6671590805054
               210000              1830000     11.5381479263306
               210000              1845000     11.4002914428711
               210000              1860000     11.2695541381836
               210000              1875000     11.1714096069336
               210000              1890000     11.0498952865601
               210000              1905000     10.9760103225708
               210000              1920000      11.026629447937
               210000              1935000     11.0018014907837
               210000              1950000     10.8928165435791
               210000              1965000     10.9161796569824
               210000              1980000     11.2659149169922
               210000              1995000     11.4769840240479
               210000              2010000     11.6350345611572
               210000              2025000     11.7637786865234
               210000              2040000     11.8973960876465
               210000              2055000     12.0417623519897
               210000              2070000     12.1771907806396
               210000              2085000     12.2899332046509
               210000              2100000     12.3500108718872
               210000              2115000     12.3689422607422
               210000              2130000     12.3688640594482
               210000              2145000     12.2920341491699
               210000              2160000     12.1706285476685
               225000             -1320000     88.7653198242188
               225000             -1305000     87.6586456298828
               225000             -1290000     81.2967758178711
               225000             -1275000     71.8586883544922
               225000             -1260000     61.3913383483887
               225000             -1245000     50.8524742126465
               225000             -1230000     41.7256774902344
               225000             -1215000     33.9518165588379
               225000             -1200000     28.0383853912354
               225000             -1185000     23.4169635772705
               225000             -1170000     19.8389511108398
               225000             -1155000     17.1924819946289
               225000             -1140000     15.3043537139893
               225000             -1125000     14.0482339859009
               225000             -1110000     13.2147302627563
               225000             -1095000     12.6742324829102
               225000             -1080000     12.3370037078857
               225000             -1065000     12.1241226196289
               225000             -1050000     11.9927968978882
               225000             -1035000     11.9113731384277
               225000             -1020000     11.8715372085571
               225000             -1005000     11.8561201095581
               225000              -990000      11.857081413269
               225000              -975000     11.8548345565796
               225000              -960000     11.8215379714966
               225000              -945000      11.784499168396
               225000              -930000     11.7497282028198
               225000              -915000     11.7200288772583
               225000              -900000     11.6942529678345
               225000              -885000     11.6756410598755
               225000              -870000     11.6626014709473
               225000              -855000     11.6192321777344
               225000              -840000     11.5812845230103
               225000              -825000     11.5723733901978
               225000              -810000     11.5825395584106
               225000              -795000     11.5708694458008
               225000              -780000     11.6319169998169
               225000              -765000     11.6859493255615
               225000              -750000     11.5642509460449
               225000              -735000     11.5138788223267
               225000              -720000     11.5032415390015
               225000              -705000     11.3626184463501
               225000              -690000     11.1471042633057
               225000              -675000     11.2807378768921
               225000              -660000     11.2390165328979
               225000              -645000     11.1764602661133
               225000              -630000     10.9974803924561
               225000              -615000     11.0032091140747
               225000              -600000     11.0731992721558
               225000              -585000     11.0555820465088
               225000              -570000     11.0197401046753
               225000              -555000     11.0122976303101
               225000              -540000     10.9949331283569
               225000              -525000     10.9725074768066
               225000              -510000     10.9572343826294
               225000              -495000     10.9619932174683
               225000              -480000     10.9769487380981
               225000              -465000     11.0165252685547
               225000              -450000     11.0585908889771
               225000              -435000     11.0979042053223
               225000              -420000     11.1544208526611
               225000              -405000     11.1990032196045
               225000              -390000     11.2113876342773
               225000              -375000     11.2154855728149
               225000              -360000     11.2034196853638
               225000              -345000     11.1912527084351
               225000              -330000     11.2052593231201
               225000              -315000     11.2192192077637
               225000              -300000     11.2268524169922
               225000              -285000     11.2322826385498
               225000              -270000     11.2320032119751
               225000              -255000     11.2332963943481
               225000              -240000     11.2374629974365
               225000              -225000     11.2513837814331
               225000              -210000     11.2889356613159
               225000              -195000      11.354455947876
               225000              -180000      11.437671661377
               225000              -165000     11.5188293457031
               225000              -150000     11.6132164001465
               225000              -135000     11.7007646560669
               225000              -120000     11.7778911590576
               225000              -105000     11.8399410247803
               225000               -90000     11.8805150985718
               225000               -75000     11.8921871185303
               225000               -60000     11.8641490936279
               225000               -45000     11.8193597793579
               225000               -30000     11.7764644622803
               225000               -15000     11.7284669876099
               225000                    0     11.7697515487671
               225000                15000     11.8396730422974
               225000                30000     11.9463052749634
               225000                45000     11.9901857376099
               225000                60000     12.0019044876099
               225000                75000     12.0097665786743
               225000                90000     12.0235452651978
               225000               105000     12.0374870300293
               225000               120000     12.1205720901489
               225000               135000     12.3168954849243
               225000               150000     12.5551128387451
               225000               165000     12.7752351760864
               225000               180000     13.0324621200562
               225000               195000     13.3484745025635
               225000               210000     13.6306934356689
               225000               225000     13.7996578216553
               225000               240000     13.7937326431274
               225000               255000     13.6639051437378
               225000               270000     13.5985221862793
               225000               285000      13.586254119873
               225000               300000     13.5109968185425
               225000               315000     13.3615493774414
               225000               330000     13.1563024520874
               225000               345000     12.9489431381226
               225000               360000       12.75208568573
               225000               375000     12.5558166503906
               225000               390000      12.383397102356
               225000               405000     12.2365427017212
               225000               420000     12.1232070922852
               225000               435000     12.0490407943726
               225000               450000     12.0220394134521
               225000               465000     12.0126495361328
               225000               480000      12.016339302063
               225000               495000     12.0442714691162
               225000               510000     12.0978012084961
               225000               525000     12.1670188903809
               225000               540000     12.2386322021484
               225000               555000     12.3023986816406
               225000               570000     12.3407230377197
               225000               585000     12.3396854400635
               225000               600000     12.2506513595581
               225000               615000     12.1977367401123
               225000               630000     12.1377563476563
               225000               645000       12.08287525177
               225000               660000     12.0392942428589
               225000               675000     12.0091371536255
               225000               690000      11.998462677002
               225000               705000     12.0098562240601
               225000               720000     12.0612306594849
               225000               735000     12.1508855819702
               225000               750000     12.2765512466431
               225000               765000     12.4147653579712
               225000               780000     12.5216255187988
               225000               795000     12.4707136154175
               225000               810000     12.2770738601685
               225000               825000     12.0639810562134
               225000               840000     11.8859968185425
               225000               855000     11.7442464828491
               225000               870000     11.6353740692139
               225000               885000     11.5636396408081
               225000               900000     11.5041217803955
               225000               915000     11.4261388778687
               225000               930000     11.3509511947632
               225000               945000     11.3127880096436
               225000               960000     11.3072385787964
               225000               975000     11.3040142059326
               225000               990000     11.2931861877441
               225000              1005000     11.2768363952637
               225000              1020000     11.2549953460693
               225000              1035000     11.2323627471924
               225000              1050000     11.2121505737305
               225000              1065000     11.1989364624023
               225000              1080000     11.1903734207153
               225000              1095000     11.1759996414185
               225000              1110000     11.1480236053467
               225000              1125000     11.1317253112793
               225000              1140000     11.1330604553223
               225000              1155000     11.1531314849854
               225000              1170000     11.1825313568115
               225000              1185000     11.2167348861694
               225000              1200000     11.2530851364136
               225000              1215000     11.2884216308594
               225000              1230000     11.2700099945068
               225000              1245000     11.2893476486206
               225000              1260000     11.2996282577515
               225000              1275000     11.3140239715576
               225000              1290000     11.3059854507446
               225000              1305000     11.3040761947632
               225000              1320000     11.3017482757568
               225000              1335000      11.298807144165
               225000              1350000     11.2869777679443
               225000              1365000       11.28453540802
               225000              1380000     11.2734975814819
               225000              1395000     11.2658205032349
               225000              1410000     11.2670116424561
               225000              1425000     11.2741060256958
               225000              1440000     11.2944059371948
               225000              1455000     11.3483276367188
               225000              1470000     11.4510555267334
               225000              1485000     11.5582094192505
               225000              1500000     11.6261892318726
               225000              1515000     11.6983118057251
               225000              1530000     11.7926979064941
               225000              1545000     11.9282255172729
               225000              1560000     12.0515003204346
               225000              1575000      12.217116355896
               225000              1590000     12.2754173278809
               225000              1605000     12.3539810180664
               225000              1620000      12.387433052063
               225000              1635000     12.3992204666138
               225000              1650000     12.3910474777222
               225000              1665000      12.407509803772
               225000              1680000     12.3945274353027
               225000              1695000     12.3246726989746
               225000              1710000     12.3133850097656
               225000              1725000     12.2951011657715
               225000              1740000     12.1977977752686
               225000              1755000      12.139986038208
               225000              1770000     12.1165046691895
               225000              1785000     12.0545377731323
               225000              1800000     11.9199409484863
               225000              1815000     11.7715711593628
               225000              1830000     11.6013298034668
               225000              1845000     11.4715404510498
               225000              1860000     11.2990016937256
               225000              1875000     11.2131195068359
               225000              1890000     11.0425157546997
               225000              1905000     10.9912490844727
               225000              1920000     11.0478897094727
               225000              1935000     11.0087366104126
               225000              1950000     10.9309253692627
               225000              1965000     10.9703273773193
               225000              1980000     11.1705560684204
               225000              1995000     11.4813470840454
               225000              2010000      11.558669090271
               225000              2025000     11.7026348114014
               225000              2040000     11.8802452087402
               225000              2055000     12.0125160217285
               225000              2070000     12.1396999359131
               225000              2085000     12.2446823120117
               225000              2100000     12.3170471191406
               225000              2115000      12.353536605835
               225000              2130000     12.3449001312256
               225000              2145000      12.288969039917
               225000              2160000     12.1930208206177
               240000             -1320000      83.734619140625
               240000             -1305000     85.0268249511719
               240000             -1290000     81.2270050048828
               240000             -1275000     71.9528198242188
               240000             -1260000     61.3269958496094
               240000             -1245000      50.048900604248
               240000             -1230000      40.752067565918
               240000             -1215000     33.3914337158203
               240000             -1200000     27.6441955566406
               240000             -1185000     23.1429195404053
               240000             -1170000      19.705997467041
               240000             -1155000     17.1496639251709
               240000             -1140000     15.3253946304321
               240000             -1125000     14.0642070770264
               240000             -1110000     13.2328081130981
               240000             -1095000     12.6923217773438
               240000             -1080000     12.3647079467773
               240000             -1065000     12.1505365371704
               240000             -1050000     12.0158443450928
               240000             -1035000     11.9292135238647
               240000             -1020000     11.8814430236816
               240000             -1005000     11.8571710586548
               240000              -990000     11.8422002792358
               240000              -975000     11.8298072814941
               240000              -960000      11.810941696167
               240000              -945000     11.7869091033936
               240000              -930000      11.761043548584
               240000              -915000     11.7290334701538
               240000              -900000     11.6968755722046
               240000              -885000     11.6751575469971
               240000              -870000      11.652681350708
               240000              -855000      11.610258102417
               240000              -840000     11.5758457183838
               240000              -825000     11.5449705123901
               240000              -810000     11.5944490432739
               240000              -795000     11.6580295562744
               240000              -780000     11.6690902709961
               240000              -765000     11.5867443084717
               240000              -750000     11.3255205154419
               240000              -735000     11.2677659988403
               240000              -720000     11.3536806106567
               240000              -705000     11.3033332824707
               240000              -690000     11.2482004165649
               240000              -675000     11.2998132705688
               240000              -660000     11.3577194213867
               240000              -645000     11.3175592422485
               240000              -630000      11.199501991272
               240000              -615000     11.0875253677368
               240000              -600000     11.1551141738892
               240000              -585000     11.1396017074585
               240000              -570000     11.0820655822754
               240000              -555000     11.0532636642456
               240000              -540000     11.0438652038574
               240000              -525000     11.0289716720581
               240000              -510000     11.0204877853394
               240000              -495000     11.0195350646973
               240000              -480000     11.0309371948242
               240000              -465000      11.066764831543
               240000              -450000     11.0918731689453
               240000              -435000     11.1023101806641
               240000              -420000     11.1492261886597
               240000              -405000     11.1809864044189
               240000              -390000     11.1943550109863
               240000              -375000     11.2010183334351
               240000              -360000     11.1978311538696
               240000              -345000     11.1870450973511
               240000              -330000     11.1924104690552
               240000              -315000     11.2106819152832
               240000              -300000     11.2160882949829
               240000              -285000     11.2262935638428
               240000              -270000     11.2259101867676
               240000              -255000     11.2348251342773
               240000              -240000     11.2514867782593
               240000              -225000     11.2739143371582
               240000              -210000     11.3173837661743
               240000              -195000     11.3863306045532
               240000              -180000     11.4774360656738
               240000              -165000     11.5694065093994
               240000              -150000     11.6591386795044
               240000              -135000     11.7427501678467
               240000              -120000     11.8137235641479
               240000              -105000     11.8677377700806
               240000               -90000     11.9051275253296
               240000               -75000     11.9097394943237
               240000               -60000     11.8807344436646
               240000               -45000     11.8517150878906
               240000               -30000     11.8219747543335
               240000               -15000     11.7856922149658
               240000                    0     11.8536548614502
               240000                15000     11.9503517150879
               240000                30000     11.9813032150269
               240000                45000     12.0097799301147
               240000                60000     12.0241374969482
               240000                75000     12.0466365814209
               240000                90000     12.0875291824341
               240000               105000      12.136251449585
               240000               120000     12.2235097885132
               240000               135000     12.3602571487427
               240000               150000     12.5092220306396
               240000               165000     12.6860694885254
               240000               180000     12.9709596633911
               240000               195000     13.4108352661133
               240000               210000      13.592267036438
               240000               225000     13.6924324035645
               240000               240000     13.6325273513794
               240000               255000     13.4765186309814
               240000               270000     13.4117603302002
               240000               285000     13.4542398452759
               240000               300000     13.4242267608643
               240000               315000     13.3016376495361
               240000               330000     13.1116104125977
               240000               345000     12.9247074127197
               240000               360000     12.7640466690063
               240000               375000     12.5652332305908
               240000               390000     12.3938283920288
               240000               405000     12.2507400512695
               240000               420000     12.1363801956177
               240000               435000     12.0449390411377
               240000               450000     11.9973583221436
               240000               465000     11.9938554763794
               240000               480000     11.9862775802612
               240000               495000     11.9981861114502
               240000               510000      12.011812210083
               240000               525000     12.0770893096924
               240000               540000     12.1436109542847
               240000               555000     12.1938753128052
               240000               570000     12.2049036026001
               240000               585000     12.1787719726563
               240000               600000     12.1043720245361
               240000               615000     12.0407133102417
               240000               630000     11.9831466674805
               240000               645000     11.9312925338745
               240000               660000     11.8950061798096
               240000               675000     11.8692378997803
               240000               690000     11.8612632751465
               240000               705000      11.876030921936
               240000               720000     11.9344892501831
               240000               735000     12.0213994979858
               240000               750000     12.1115894317627
               240000               765000     12.2130460739136
               240000               780000     12.2721586227417
               240000               795000      12.232985496521
               240000               810000     12.0858125686646
               240000               825000     11.9139842987061
               240000               840000     11.7625980377197
               240000               855000     11.6479520797729
               240000               870000     11.5682210922241
               240000               885000     11.5067052841187
               240000               900000     11.4547462463379
               240000               915000     11.3969087600708
               240000               930000     11.3382263183594
               240000               945000     11.2997751235962
               240000               960000      11.299373626709
               240000               975000     11.3059644699097
               240000               990000     11.3055295944214
               240000              1005000     11.2898693084717
               240000              1020000      11.268669128418
               240000              1035000     11.2470502853394
               240000              1050000     11.2280445098877
               240000              1065000     11.2196035385132
               240000              1080000     11.2166957855225
               240000              1095000      11.210825920105
               240000              1110000     11.1867980957031
               240000              1125000     11.1655502319336
               240000              1140000     11.1646661758423
               240000              1155000     11.1816434860229
               240000              1170000     11.2040967941284
               240000              1185000     11.2317628860474
               240000              1200000     11.2626800537109
               240000              1215000     11.2893733978271
               240000              1230000     11.2927799224854
               240000              1245000     11.3014907836914
               240000              1260000     11.3135557174683
               240000              1275000     11.3282899856567
               240000              1290000     11.3214864730835
               240000              1305000     11.3295288085938
               240000              1320000     11.3215646743774
               240000              1335000     11.3100776672363
               240000              1350000     11.3054552078247
               240000              1365000     11.3011274337769
               240000              1380000     11.2897615432739
               240000              1395000       11.28782081604
               240000              1410000     11.2946624755859
               240000              1425000     11.2992715835571
               240000              1440000     11.3020353317261
               240000              1455000     11.3715553283691
               240000              1470000     11.4607305526733
               240000              1485000     11.5866060256958
               240000              1500000     11.6686372756958
               240000              1515000     11.7356243133545
               240000              1530000     11.7939252853394
               240000              1545000     11.8848361968994
               240000              1560000      12.004490852356
               240000              1575000     12.1182775497437
               240000              1590000     12.1963415145874
               240000              1605000     12.3057222366333
               240000              1620000     12.3870210647583
               240000              1635000     12.4738969802856
               240000              1650000     12.5293254852295
               240000              1665000     12.4553937911987
               240000              1680000     12.4293241500854
               240000              1695000     12.4251747131348
               240000              1710000     12.3902206420898
               240000              1725000     12.3285732269287
               240000              1740000     12.2960557937622
               240000              1755000      12.299036026001
               240000              1770000     12.2469158172607
               240000              1785000     12.1601285934448
               240000              1800000      12.005955696106
               240000              1815000     11.8894853591919
               240000              1830000      11.720874786377
               240000              1845000     11.5362243652344
               240000              1860000     11.3910646438599
               240000              1875000     11.2738199234009
               240000              1890000     11.1705722808838
               240000              1905000     11.1380090713501
               240000              1920000     11.1218214035034
               240000              1935000     11.0595769882202
               240000              1950000     10.9451732635498
               240000              1965000     11.0526571273804
               240000              1980000     11.1996545791626
               240000              1995000     11.4931783676147
               240000              2010000     11.5817565917969
               240000              2025000     11.7087163925171
               240000              2040000     11.8700428009033
               240000              2055000     12.0097684860229
               240000              2070000     12.1167850494385
               240000              2085000     12.2129487991333
               240000              2100000     12.2758359909058
               240000              2115000      12.333888053894
               240000              2130000     12.3291778564453
               240000              2145000      12.284158706665
               240000              2160000     12.1906223297119
               255000             -1335000     62.9623603820801
               255000             -1320000     73.0652160644531
               255000             -1305000     80.0840835571289
               255000             -1290000     78.3665542602539
               255000             -1275000     67.8737258911133
               255000             -1260000     56.8972129821777
               255000             -1245000     46.8514671325684
               255000             -1230000     38.2187843322754
               255000             -1215000     31.4073448181152
               255000             -1200000     26.1622047424316
               255000             -1185000     22.0131587982178
               255000             -1170000     19.1245155334473
               255000             -1155000     16.8040466308594
               255000             -1140000     15.1579513549805
               255000             -1125000      13.986047744751
               255000             -1110000     13.1969270706177
               255000             -1095000     12.6768674850464
               255000             -1080000     12.3492298126221
               255000             -1065000     12.1337938308716
               255000             -1050000     11.9949655532837
               255000             -1035000     11.9084253311157
               255000             -1020000     11.8597326278687
               255000             -1005000     11.8315725326538
               255000              -990000     11.8107833862305
               255000              -975000     11.8014755249023
               255000              -960000     11.7876405715942
               255000              -945000     11.7767553329468
               255000              -930000     11.7620620727539
               255000              -915000     11.7329483032227
               255000              -900000     11.6974582672119
               255000              -885000     11.6637153625488
               255000              -870000     11.6274909973145
               255000              -855000     11.5783567428589
               255000              -840000     11.5414514541626
               255000              -825000      11.447039604187
               255000              -810000     11.6312236785889
               255000              -795000     11.7165498733521
               255000              -780000     11.6852016448975
               255000              -765000     11.4994878768921
               255000              -750000     11.2870903015137
               255000              -735000     11.1604909896851
               255000              -720000      11.240686416626
               255000              -705000     11.4286556243896
               255000              -690000     11.5339918136597
               255000              -675000     11.3267993927002
               255000              -660000     11.4042825698853
               255000              -645000     11.3495864868164
               255000              -630000      11.290961265564
               255000              -615000      11.263258934021
               255000              -600000     11.2535696029663
               255000              -585000     11.2165384292603
               255000              -570000     11.1605424880981
               255000              -555000     11.1100759506226
               255000              -540000     11.1047821044922
               255000              -525000     11.0931119918823
               255000              -510000     11.0971641540527
               255000              -495000     11.0954723358154
               255000              -480000     11.0893898010254
               255000              -465000     11.1179180145264
               255000              -450000     11.1437606811523
               255000              -435000     11.1539402008057
               255000              -420000     11.1598014831543
               255000              -405000     11.1706714630127
               255000              -390000     11.1891384124756
               255000              -375000     11.1775159835815
               255000              -360000      11.195613861084
               255000              -345000      11.189549446106
               255000              -330000     11.1904697418213
               255000              -315000     11.2052574157715
               255000              -300000     11.2118225097656
               255000              -285000     11.2182550430298
               255000              -270000     11.2222108840942
               255000              -255000       11.23752784729
               255000              -240000     11.2682981491089
               255000              -225000     11.2972850799561
               255000              -210000     11.3484039306641
               255000              -195000     11.4333400726318
               255000              -180000     11.5372657775879
               255000              -165000     11.6347503662109
               255000              -150000     11.7227439880371
               255000              -135000     11.7989749908447
               255000              -120000     11.8596029281616
